ply
format ascii 1.0
element vertex 1229
property float x
property float y
property float z
property uchar red
property uchar green
property uchar blue
end_header
-0.065401 0.016471 0.384564 255 127 14
-0.004522 -0.001100 0.318337 255 127 14
0.044602 -0.006901 0.528679 255 127 14
0.036335 0.043483 0.426353 255 127 14
-0.074647 0.054638 0.323323 255 127 14
-0.041313 -0.043410 0.476031 255 127 14
-0.046279 -0.006950 0.410082 255 127 14
-0.017536 -0.005796 0.299049 255 127 14
-0.029731 0.021502 0.282025 255 127 14
-0.060190 -0.000745 0.467264 255 127 14
-0.006304 0.055328 0.466738 255 127 14
-0.039413 -0.001061 0.391484 255 127 14
-0.060690 0.025301 0.419581 255 127 14
-0.018061 -0.055358 0.475690 255 127 14
-0.055952 0.030574 0.431290 255 127 14
0.000771 -0.019928 0.422731 255 127 14
0.015813 0.097648 0.316158 255 127 14
-0.060501 0.000039 0.437382 255 127 14
-0.041880 0.043555 0.450568 255 127 14
-0.070636 0.031329 0.353870 255 127 14
0.022722 0.002427 0.421418 255 127 14
-0.058443 -0.021685 0.522103 255 127 14
0.041640 -0.030046 0.490229 255 127 14
-0.071716 0.060361 0.361151 255 127 14
-0.018544 -0.035913 0.525998 255 127 14
0.015518 0.040786 0.285952 255 127 14
-0.005590 0.112703 0.300990 255 127 14
-0.062105 0.010132 0.339764 255 127 14
-0.059904 0.004300 0.329475 255 127 14
0.036105 0.049021 0.370323 255 127 14
-0.022490 0.116575 0.364042 255 127 14
-0.060608 0.048157 0.296513 255 127 14
0.047707 -0.014888 0.492751 255 127 14
-0.035199 -0.033929 0.525417 255 127 14
-0.019247 -0.006414 0.295059 255 127 14
-0.024618 0.107380 0.375682 255 127 14
-0.041814 0.061578 0.411838 255 127 14
-0.022980 -0.007761 0.329986 255 127 14
0.035472 0.051620 0.380927 255 127 14
0.003766 -0.010366 0.527146 255 127 14
-0.025110 0.049400 0.516574 255 127 14
-0.060407 0.007176 0.500656 255 127 14
-0.050800 0.030262 0.486436 255 127 14
-0.026417 -0.030791 0.525779 255 127 14
0.023924 -0.009999 0.527885 255 127 14
-0.019248 0.003343 0.393033 255 127 14
-0.070259 0.049949 0.311357 255 127 14
-0.015271 0.103512 0.290255 255 127 14
0.004845 0.102527 0.365013 255 127 14
-0.013782 0.065429 0.425144 255 127 14
0.011816 0.068990 0.290222 255 127 14
-0.030071 -0.004379 0.407965 255 127 14
-0.033586 0.047106 0.472889 255 127 14
-0.021870 -0.054632 0.489389 255 127 14
-0.031779 0.001398 0.286551 255 127 14
0.039405 0.014751 0.359024 255 127 14
-0.033269 0.044661 0.280449 255 127 14
-0.044419 -0.008552 0.412351 255 127 14
-0.040011 -0.006226 0.525606 255 127 14
-0.068427 0.085649 0.365288 255 127 14
-0.064471 0.033496 0.397110 255 127 14
0.036297 -0.038356 0.460521 255 127 14
-0.059689 0.053970 0.393363 255 127 14
0.024856 -0.047412 0.521499 255 127 14
-0.065240 0.018457 0.338365 255 127 14
-0.064511 0.044878 0.302282 255 127 14
-0.067114 0.082249 0.300321 255 127 14
0.047053 0.029820 0.324680 255 127 14
-0.065854 0.020167 0.337385 255 127 14
-0.056918 0.018259 0.525312 255 127 14
-0.013036 0.099451 0.380279 255 127 14
0.030831 -0.043513 0.470605 255 127 14
-0.045609 -0.038146 0.455641 255 127 14
-0.025581 0.051877 0.278373 255 127 14
-0.045631 0.036309 0.496623 255 127 14
0.016855 0.015564 0.402800 255 127 14
-0.053853 0.025752 0.514528 255 127 14
-0.030603 -0.051252 0.493813 255 127 14
-0.062925 0.007068 0.418294 255 127 14
0.019996 0.018568 0.395574 255 127 14
-0.058026 0.015293 0.464512 255 127 14
-0.007913 0.108031 0.296057 255 127 14
-0.064099 0.108807 0.340615 255 127 14
0.008338 0.002363 0.527480 255 127 14
-0.029520 -0.022757 0.425033 255 127 14
-0.060489 0.001694 0.479907 255 127 14
0.014185 0.092499 0.307021 255 127 14
-0.052921 -0.032136 0.514548 255 127 14
-0.026975 0.018909 0.281384 255 127 14
-0.031272 0.046777 0.515239 255 127 14
0.031248 -0.043066 0.475571 255 127 14
0.009024 0.003788 0.308863 255 127 14
-0.018570 -0.055007 0.465396 255 127 14
-0.001691 0.118324 0.315507 255 127 14
-0.051599 -0.014273 0.346345 255 127 14
-0.037292 -0.046964 0.485907 255 127 14
0.049308 -0.006494 0.485230 255 127 14
-0.018380 -0.006101 0.384161 255 127 14
-0.043728 -0.003906 0.298068 255 127 14
-0.042263 0.116141 0.307306 255 127 14
-0.004760 0.107355 0.297887 255 127 14
-0.020109 0.111841 0.295345 255 127 14
-0.060632 -0.006589 0.490001 255 127 14
0.009376 0.103172 0.310236 255 127 14
-0.030788 0.121213 0.312575 255 127 14
0.026693 0.076206 0.312447 255 127 14
-0.047944 -0.008204 0.361429 255 127 14
-0.034542 -0.041277 0.440472 255 127 14
-0.055662 0.004496 0.365546 255 127 14
0.035379 0.034167 0.498825 255 127 14
-0.042035 0.122093 0.327472 255 127 14
0.034003 0.028072 0.376567 255 127 14
-0.026826 0.029328 0.280204 255 127 14
-0.039125 0.041942 0.508479 255 127 14
-0.014031 -0.004531 0.324638 255 127 14
-0.024255 -0.053111 0.461909 255 127 14
0.020008 -0.024713 0.430681 255 127 14
0.002784 0.001536 0.348178 255 127 14
-0.007232 -0.002078 0.290283 255 127 14
0.029084 0.025375 0.528538 255 127 14
0.020766 -0.050366 0.473865 255 127 14
0.004396 0.100252 0.301283 255 127 14
-0.016822 -0.048201 0.525899 255 127 14
-0.021617 0.109787 0.292873 255 127 14
-0.050434 -0.033535 0.480850 255 127 14
-0.055265 -0.027585 0.508240 255 127 14
0.015964 -0.023056 0.428327 255 127 14
0.036002 0.045785 0.387109 255 127 14
-0.034825 0.068131 0.409574 255 127 14
-0.009580 0.095359 0.382990 255 127 14
0.037859 -0.034061 0.528077 255 127 14
-0.001177 -0.056594 0.463693 255 127 14
0.031246 0.014027 0.289917 255 127 14
-0.004490 -0.001089 0.341422 255 127 14
-0.046921 -0.037768 0.475743 255 127 14
0.042811 0.004802 0.435132 255 127 14
0.007845 0.110845 0.349074 255 127 14
-0.015884 -0.056768 0.523076 255 127 14
0.043490 0.040032 0.341484 255 127 14
0.027996 0.041317 0.497603 255 127 14
0.030450 0.038299 0.514182 255 127 14
0.039972 0.037113 0.430774 255 127 14
0.023217 0.060179 0.413507 255 127 14
-0.029012 0.067683 0.414440 255 127 14
0.028606 0.024409 0.393857 255 127 14
0.039735 0.014870 0.349749 255 127 14
0.047838 0.008946 0.499456 255 127 14
-0.040337 0.002732 0.525712 255 127 14
0.046459 -0.021604 0.466161 255 127 14
-0.043572 0.070847 0.399356 255 127 14
-0.044922 0.015286 0.525710 255 127 14
-0.067925 0.101931 0.349855 255 127 14
0.022764 -0.043240 0.446008 255 127 14
0.045276 0.016869 0.347198 255 127 14
-0.037056 -0.034960 0.435541 255 127 14
-0.052866 0.027152 0.483388 255 127 14
0.019698 0.062092 0.414525 255 127 14
-0.072275 0.072636 0.308820 255 127 14
-0.031637 -0.012718 0.525826 255 127 14
-0.010124 0.102937 0.376194 255 127 14
0.003612 0.007811 0.278355 255 127 14
0.027178 0.022998 0.386212 255 127 14
0.042666 0.015927 0.357727 255 127 14
-0.060475 0.009181 0.353887 255 127 14
-0.014251 0.101557 0.289843 255 127 14
-0.040072 0.119262 0.353254 255 127 14
-0.034790 -0.049165 0.500738 255 127 14
-0.047200 -0.036292 0.455509 255 127 14
-0.050522 0.083662 0.383660 255 127 14
-0.035345 0.090534 0.386968 255 127 14
-0.006890 0.004987 0.526960 255 127 14
-0.025466 -0.053604 0.497200 255 127 14
0.029522 0.040674 0.487487 255 127 14
-0.062451 0.090419 0.370651 255 127 14
0.012564 -0.041030 0.437325 255 127 14
-0.020448 -0.001075 0.406769 255 127 14
-0.026824 0.124363 0.342797 255 127 14
-0.040175 -0.008913 0.296144 255 127 14
-0.062627 0.110381 0.327032 255 127 14
0.024889 0.009513 0.288622 255 127 14
-0.043170 0.121470 0.325583 255 127 14
-0.059998 0.010741 0.380056 255 127 14
-0.024629 -0.052849 0.458237 255 127 14
-0.074941 0.057469 0.345077 255 127 14
-0.008297 0.052639 0.511572 255 127 14
0.030303 0.011466 0.325120 255 127 14
0.000686 0.119904 0.328002 255 127 14
-0.062006 0.042796 0.299720 255 127 14
-0.037088 0.019449 0.285844 255 127 14
-0.066566 0.022142 0.336627 255 127 14
-0.059246 0.035316 0.299644 255 127 14
0.045440 0.016438 0.436900 255 127 14
-0.047120 -0.004962 0.302856 255 127 14
0.004329 -0.022506 0.424616 255 127 14
-0.053598 0.115918 0.344372 255 127 14
0.008141 0.099699 0.305135 255 127 14
-0.074225 0.055189 0.347854 255 127 14
0.021328 0.017803 0.384879 255 127 14
-0.020583 0.045946 0.527000 255 127 14
0.007542 0.064182 0.422950 255 127 14
0.006684 0.110728 0.351965 255 127 14
0.007821 0.009295 0.407286 255 127 14
0.045439 0.036110 0.333812 255 127 14
0.029217 0.042659 0.462151 255 127 14
-0.014925 0.072520 0.411962 255 127 14
-0.060406 -0.000163 0.475001 255 127 14
-0.044042 0.101491 0.376181 255 127 14
-0.049828 -0.028432 0.439650 255 127 14
-0.055957 -0.026933 0.516558 255 127 14
0.011868 0.004814 0.314764 255 127 14
-0.018292 -0.006043 0.281495 255 127 14
0.047213 -0.018250 0.479329 255 127 14
0.023762 0.044521 0.494709 255 127 14
-0.000525 0.011698 0.278123 255 127 14
-0.015997 -0.005241 0.319204 255 127 14
0.042047 -0.029088 0.495511 255 127 14
0.049346 -0.005073 0.486663 255 127 14
-0.038709 0.096688 0.381535 255 127 14
-0.014759 0.045682 0.278035 255 127 14
0.040306 0.033689 0.441200 255 127 14
-0.030161 -0.029072 0.429007 255 127 14
-0.023384 -0.053316 0.458474 255 127 14
0.003634 0.051734 0.511811 255 127 14
-0.079393 0.083230 0.339513 255 127 14
-0.013196 -0.045093 0.437936 255 127 14
-0.062878 0.012049 0.334528 255 127 14
-0.057287 0.037615 0.296493 255 127 14
0.013964 -0.053431 0.478538 255 127 14
-0.039236 0.033881 0.284207 255 127 14
-0.040741 0.043695 0.455548 255 127 14
-0.059831 0.009563 0.495227 255 127 14
0.019606 0.085731 0.309081 255 127 14
0.003423 0.117544 0.344644 255 127 14
0.035259 -0.038926 0.484016 255 127 14
-0.007595 0.035682 0.278255 255 127 14
-0.042607 -0.041510 0.460549 255 127 14
-0.045285 0.111478 0.301489 255 127 14
0.037687 0.053106 0.352257 255 127 14
-0.022812 0.120769 0.310226 255 127 14
0.049085 -0.002109 0.496308 255 127 14
-0.003842 -0.057089 0.495109 255 127 14
0.024973 0.066366 0.394746 255 127 14
-0.056723 -0.017149 0.440123 255 127 14
-0.048131 0.037026 0.448916 255 127 14
0.027388 -0.004145 0.426793 255 127 14
-0.051890 -0.032754 0.500738 255 127 14
0.024677 -0.036128 0.527569 255 127 14
0.042525 0.040447 0.347310 255 127 14
-0.050838 0.048027 0.417248 255 127 14
0.046041 0.014535 0.507764 255 127 14
0.038310 0.054764 0.340933 255 127 14
0.003480 0.001787 0.292514 255 127 14
-0.069018 0.101096 0.348749 255 127 14
-0.000833 0.001692 0.527137 255 127 14
0.039718 0.014864 0.345494 255 127 14
0.017523 0.069446 0.400863 255 127 14
-0.006301 -0.047484 0.440300 255 127 14
0.001872 -0.021942 0.423873 255 127 14
-0.002730 0.075178 0.406445 255 127 14
-0.004804 -0.057428 0.519979 255 127 14
-0.020136 -0.006734 0.301890 255 127 14
0.015510 0.083162 0.300999 255 127 14
-0.019301 0.048030 0.278062 255 127 14
-0.062893 0.022355 0.412622 255 127 14
-0.012277 0.005028 0.399204 255 127 14
-0.007979 -0.057467 0.523804 255 127 14
0.020038 -0.020086 0.527611 255 127 14
-0.055307 0.023136 0.460576 255 127 14
-0.024949 -0.004442 0.409842 255 127 14
-0.053077 0.039317 0.425608 255 127 14
-0.008820 0.041584 0.278331 255 127 14
-0.016776 -0.005522 0.321306 255 127 14
0.027087 0.074195 0.367761 255 127 14
-0.028895 0.100585 0.286407 255 127 14
0.041345 0.028476 0.465466 255 127 14
0.021005 0.088951 0.351559 255 127 14
-0.061881 0.012312 0.354830 255 127 14
-0.053382 0.026154 0.490154 255 127 14
-0.051792 0.035529 0.437176 255 127 14
0.042650 0.027122 0.456151 255 127 14
-0.027338 -0.052817 0.495640 255 127 14
-0.038450 -0.013343 0.298665 255 127 14
-0.062672 0.013300 0.350785 255 127 14
-0.016832 -0.021013 0.422682 255 127 14
-0.070466 0.039429 0.318020 255 127 14
-0.003006 0.061726 0.434604 255 127 14
-0.047913 0.077981 0.389539 255 127 14
0.012073 -0.049442 0.526935 255 127 14
-0.077891 0.069912 0.335092 255 127 14
0.037020 0.059185 0.336082 255 127 14
0.034463 0.016550 0.372982 255 127 14
0.020542 -0.024198 0.430671 255 127 14
-0.054874 0.104498 0.365820 255 127 14
0.010346 0.004265 0.379268 255 127 14
-0.046187 -0.016135 0.317737 255 127 14
0.012632 0.021514 0.281466 255 127 14
-0.053499 0.067069 0.392466 255 127 14
0.031911 -0.014743 0.528114 255 127 14
-0.069108 0.027919 0.374784 255 127 14
-0.011493 -0.003620 0.412582 255 127 14
-0.055973 -0.024000 0.484826 255 127 14
-0.073094 0.098534 0.326881 255 127 14
-0.018478 0.008592 0.279968 255 127 14
-0.016824 -0.056515 0.518810 255 127 14
-0.065116 0.050059 0.301978 255 127 14
0.034232 0.012884 0.329123 255 127 14
0.023039 0.009933 0.284052 255 127 14
-0.063175 0.005633 0.408199 255 127 14
0.014705 0.014996 0.401434 255 127 14
0.028642 0.074972 0.358008 255 127 14
-0.041819 0.113165 0.364161 255 127 14
0.007078 0.053208 0.472431 255 127 14
-0.054133 0.089653 0.377727 255 127 14
0.040562 0.037956 0.358843 255 127 14
-0.057282 -0.003324 0.332508 255 127 14
-0.031583 -0.039598 0.525475 255 127 14
0.028948 0.070923 0.313197 255 127 14
-0.065766 0.107738 0.329167 255 127 14
0.005458 0.069342 0.286102 255 127 14
0.013614 0.049022 0.508056 255 127 14
0.032175 0.072064 0.327467 255 127 14
-0.014243 -0.052121 0.448094 255 127 14
0.018647 0.097687 0.336933 255 127 14
0.012637 0.088150 0.301388 255 127 14
-0.053777 0.025794 0.473833 255 127 14
-0.067255 0.074136 0.301132 255 127 14
-0.005642 -0.002086 0.526912 255 127 14
-0.035247 -0.047608 0.466110 255 127 14
0.017562 0.006869 0.360908 255 127 14
-0.030459 0.084585 0.393621 255 127 14
0.000371 -0.056671 0.484384 255 127 14
0.037932 0.027627 0.301486 255 127 14
0.040600 -0.011824 0.438184 255 127 14
-0.059583 -0.017042 0.512896 255 127 14
-0.038330 0.057854 0.421570 255 127 14
0.038458 0.054381 0.326695 255 127 14
-0.039334 0.044997 0.454844 255 127 14
-0.062271 0.085931 0.372342 255 127 14
-0.011715 -0.003696 0.318830 255 127 14
0.041490 0.023550 0.524759 255 127 14
-0.063582 0.058271 0.298531 255 127 14
-0.015828 0.069313 0.417150 255 127 14
0.048220 0.012558 0.467899 255 127 14
0.047651 0.013941 0.472508 255 127 14
-0.038601 0.122439 0.322763 255 127 14
0.012942 -0.053768 0.524723 255 127 14
0.003748 0.056816 0.448970 255 127 14
-0.027832 0.123135 0.317796 255 127 14
-0.024351 -0.036869 0.525774 255 127 14
0.005175 -0.048120 0.442054 255 127 14
-0.043025 0.078084 0.393115 255 127 14
-0.061096 -0.012435 0.524290 255 127 14
-0.011380 -0.056854 0.495507 255 127 14
-0.056108 0.082242 0.290923 255 127 14
-0.008780 0.110212 0.369501 255 127 14
-0.020838 0.051124 0.495792 255 127 14
-0.052183 0.110253 0.305469 255 127 14
0.042166 0.015747 0.309605 255 127 14
-0.007028 0.079565 0.284320 255 127 14
-0.001474 0.052351 0.515471 255 127 14
0.030582 0.011567 0.367901 255 127 14
0.049248 -0.010960 0.453712 255 127 14
0.009421 0.067353 0.414358 255 127 14
-0.051730 -0.014707 0.320992 255 127 14
-0.071020 0.037048 0.323901 255 127 14
-0.078868 0.076250 0.334270 255 127 14
-0.020615 0.085432 0.394609 255 127 14
0.006549 0.057226 0.444514 255 127 14
-0.009593 0.026477 0.527144 255 127 14
-0.030428 0.093590 0.284586 255 127 14
-0.050250 -0.017601 0.336863 255 127 14
-0.009451 0.076605 0.405666 255 127 14
-0.005621 0.046066 0.527546 255 127 14
0.044539 0.038540 0.334453 255 127 14
0.033083 0.069566 0.340672 255 127 14
-0.028308 -0.032999 0.430984 255 127 14
0.007129 0.087697 0.295679 255 127 14
-0.052287 -0.031821 0.496221 255 127 14
0.011569 0.009639 0.409351 255 127 14
0.041595 0.026088 0.361460 255 127 14
-0.068167 0.071476 0.302617 255 127 14
-0.068444 0.025051 0.366614 255 127 14
0.034090 0.012833 0.370579 255 127 14
0.041780 0.042709 0.321648 255 127 14
0.005176 0.051614 0.505894 255 127 14
-0.047769 -0.035604 0.456283 255 127 14
-0.033486 -0.016690 0.421077 255 127 14
0.000999 0.019179 0.527434 255 127 14
-0.055770 -0.021703 0.457412 255 127 14
-0.037362 -0.045177 0.452030 255 127 14
-0.046642 0.012982 0.294714 255 127 14
-0.050186 0.068815 0.394832 255 127 14
-0.060028 0.068862 0.382564 255 127 14
0.045238 -0.019630 0.526459 255 127 14
-0.018901 0.102260 0.379287 255 127 14
-0.003267 0.053178 0.495064 255 127 14
0.017509 0.074768 0.297464 255 127 14
-0.006732 0.012048 0.278051 255 127 14
0.027514 0.045593 0.296726 255 127 14
0.033405 -0.040539 0.497795 255 127 14
-0.033531 0.108174 0.292315 255 127 14
-0.015422 -0.033694 0.429359 255 127 14
-0.071244 0.034589 0.339268 255 127 14
-0.067582 0.025058 0.334462 255 127 14
0.007574 0.003265 0.334180 255 127 14
-0.074550 0.051504 0.338901 255 127 14
0.043569 -0.004239 0.528676 255 127 14
-0.057923 0.062899 0.389545 255 127 14
-0.052249 -0.000379 0.308585 255 127 14
-0.019213 -0.006401 0.311321 255 127 14
0.008693 0.113934 0.337810 255 127 14
-0.041155 -0.002475 0.376437 255 127 14
-0.064188 0.009408 0.410028 255 127 14
0.005231 0.002419 0.362623 255 127 14
0.035231 0.013244 0.301239 255 127 14
-0.060595 0.000388 0.436320 255 127 14
-0.065198 0.019126 0.351107 255 127 14
0.037924 0.056176 0.339416 255 127 14
-0.047969 0.009950 0.297216 255 127 14
-0.026233 -0.053785 0.514643 255 127 14
-0.015895 0.024713 0.278393 255 127 14
0.029536 0.025543 0.388913 255 127 14
0.001136 -0.024295 0.424893 255 127 14
0.048813 0.007698 0.480200 255 127 14
-0.077141 0.078057 0.347551 255 127 14
-0.000578 0.075527 0.405021 255 127 14
0.011949 -0.042282 0.438129 255 127 14
-0.050499 0.014206 0.298339 255 127 14
-0.004632 -0.034848 0.526519 255 127 14
-0.016225 -0.005323 0.338881 255 127 14
0.022249 0.053777 0.294438 255 127 14
-0.051203 0.022620 0.295804 255 127 14
-0.031551 -0.010854 0.372387 255 127 14
-0.076518 0.071602 0.347079 255 127 14
0.011488 0.071116 0.290555 255 127 14
0.005265 -0.056059 0.509873 255 127 14
-0.036531 0.043776 0.518912 255 127 14
-0.019873 -0.006640 0.347425 255 127 14
-0.023072 0.014870 0.526500 255 127 14
-0.073380 0.098623 0.334464 255 127 14
-0.078708 0.077628 0.326593 255 127 14
-0.011065 -0.001137 0.279106 255 127 14
0.042791 0.015972 0.360468 255 127 14
-0.039453 0.007507 0.525807 255 127 14
-0.034558 0.037918 0.526385 255 127 14
-0.008357 -0.056592 0.463193 255 127 14
-0.008867 0.017193 0.527048 255 127 14
-0.015547 0.008890 0.526696 255 127 14
0.036177 0.057013 0.319834 255 127 14
-0.032613 0.047278 0.280014 255 127 14
-0.068030 0.072764 0.368475 255 127 14
0.025123 0.016078 0.411021 255 127 14
0.025448 0.038040 0.528572 255 127 14
0.003726 0.073685 0.406006 255 127 14
0.025879 0.021139 0.528366 255 127 14
0.007278 -0.027961 0.527043 255 127 14
0.022893 0.025496 0.528314 255 127 14
0.036897 0.043856 0.394496 255 127 14
-0.029841 0.091235 0.284032 255 127 14
0.009569 0.082389 0.386386 255 127 14
-0.051312 0.109740 0.303852 255 127 14
0.012462 -0.045047 0.441085 255 127 14
-0.069399 0.061614 0.367774 255 127 14
0.016171 -0.000348 0.419497 255 127 14
0.031364 0.073681 0.342979 255 127 14
-0.007613 -0.002215 0.291251 255 127 14
-0.028727 -0.015921 0.420279 255 127 14
-0.055631 -0.001315 0.353071 255 127 14
-0.066920 0.022215 0.391643 255 127 14
0.008838 0.065867 0.418049 255 127 14
0.049474 0.003422 0.478590 255 127 14
-0.015257 0.015157 0.526789 255 127 14
0.038436 0.029343 0.513028 255 127 14
0.007058 -0.055643 0.512169 255 127 14
-0.002576 0.003040 0.388342 255 127 14
-0.045073 0.117374 0.353568 255 127 14
-0.061035 0.011319 0.431325 255 127 14
0.021061 0.043531 0.528485 255 127 14
0.044862 0.019724 0.489264 255 127 14
-0.043732 0.104793 0.292677 255 127 14
0.018306 0.046679 0.514523 255 127 14
0.012513 0.018746 0.281100 255 127 14
0.020781 0.051902 0.442734 255 127 14
0.042521 0.026337 0.467350 255 127 14
-0.054006 0.025077 0.490058 255 127 14
0.041265 0.035450 0.421664 255 127 14
-0.022768 0.059355 0.278054 255 127 14
-0.038590 0.025723 0.526078 255 127 14
0.014214 -0.041894 0.438749 255 127 14
0.011176 0.050310 0.498882 255 127 14
-0.028384 -0.009710 0.345057 255 127 14
0.029232 -0.044640 0.483855 255 127 14
-0.010011 0.065196 0.279554 255 127 14
-0.060884 0.006671 0.434955 255 127 14
-0.003391 0.048196 0.527655 255 127 14
-0.008123 0.000045 0.278517 255 127 14
-0.036145 0.010469 0.525967 255 127 14
0.038685 0.032667 0.366796 255 127 14
-0.015542 -0.054160 0.453239 255 127 14
-0.030089 0.049329 0.469548 255 127 14
-0.060859 0.006049 0.398260 255 127 14
-0.029164 -0.009992 0.369645 255 127 14
0.007159 -0.037189 0.433089 255 127 14
-0.052291 -0.010563 0.419880 255 127 14
-0.012850 0.053148 0.488348 255 127 14
0.035053 0.016977 0.372334 255 127 14
-0.058010 -0.021015 0.505038 255 127 14
0.044398 0.027580 0.312754 255 127 14
-0.019141 0.039870 0.526972 255 127 14
0.034993 -0.025879 0.440628 255 127 14
-0.053262 -0.014385 0.334384 255 127 14
0.050546 0.018771 0.325475 255 127 14
-0.018477 0.081391 0.282265 255 127 14
-0.032041 0.122176 0.316045 255 127 14
-0.052451 0.098607 0.373621 255 127 14
0.036420 -0.036501 0.518896 255 127 14
-0.074098 0.059301 0.317671 255 127 14
-0.005167 -0.037027 0.431330 255 127 14
-0.060683 0.104751 0.307301 255 127 14
-0.041445 -0.043674 0.484594 255 127 14
-0.001180 0.024525 0.278479 255 127 14
-0.067773 0.096672 0.307400 255 127 14
-0.014800 0.057858 0.278320 255 127 14
-0.017228 -0.005685 0.378700 255 127 14
-0.015277 0.002773 0.402654 255 127 14
-0.003019 0.121520 0.329508 255 127 14
-0.064298 0.023997 0.316140 255 127 14
0.016546 0.017404 0.527977 255 127 14
-0.078640 0.074476 0.331015 255 127 14
-0.054714 -0.025100 0.466750 255 127 14
0.031892 0.012040 0.309460 255 127 14
-0.059148 0.012730 0.499375 255 127 14
0.040511 0.031310 0.451292 255 127 14
-0.069568 0.097009 0.311278 255 127 14
0.030774 0.062645 0.389560 255 127 14
-0.004793 -0.003884 0.526920 255 127 14
-0.016072 0.119560 0.308636 255 127 14
-0.002645 -0.042547 0.435440 255 127 14
-0.000399 0.009877 0.395995 255 127 14
-0.072496 0.046816 0.352915 255 127 14
-0.002978 0.010650 0.527177 255 127 14
0.037472 0.049905 0.315713 255 127 14
-0.070843 0.102069 0.335665 255 127 14
0.015734 -0.037584 0.527224 255 127 14
-0.006654 -0.056810 0.472845 255 127 14
-0.034213 0.045211 0.517019 255 127 14
-0.057904 0.016619 0.499562 255 127 14
0.046843 0.016078 0.475206 255 127 14
0.046390 0.010226 0.528874 255 127 14
0.049516 0.024645 0.335337 255 127 14
-0.034606 -0.046222 0.449484 255 127 14
-0.048010 -0.007033 0.410857 255 127 14
-0.010935 -0.034790 0.526290 255 127 14
-0.062340 0.039430 0.399495 255 127 14
-0.065458 0.019751 0.367889 255 127 14
0.011155 0.004557 0.348296 255 127 14
0.007662 0.003296 0.279562 255 127 14
0.013013 -0.015650 0.527414 255 127 14
-0.048901 0.083692 0.287118 255 127 14
0.013152 -0.043293 0.527055 255 127 14
-0.065031 0.030108 0.312241 255 127 14
0.011121 0.108324 0.343730 255 127 14
-0.069283 0.044839 0.371211 255 127 14
-0.065129 0.092542 0.366524 255 127 14
0.032931 0.020566 0.528614 255 127 14
-0.067654 0.028277 0.385168 255 127 14
-0.006961 0.063618 0.280099 255 127 14
0.026674 -0.039414 0.445249 255 127 14
0.021011 0.047237 0.477877 255 127 14
-0.046448 0.036685 0.468962 255 127 14
0.035242 0.043035 0.431842 255 127 14
0.047978 -0.003449 0.525978 255 127 14
0.037803 0.039305 0.433820 255 127 14
-0.056522 0.087147 0.377100 255 127 14
-0.011072 0.036343 0.278036 255 127 14
-0.055343 0.110894 0.310472 255 127 14
0.031296 0.011824 0.308875 255 127 14
0.024935 0.035578 0.291020 255 127 14
-0.016592 -0.005456 0.359502 255 127 14
0.042702 0.043235 0.337570 255 127 14
0.001473 0.074640 0.405574 255 127 14
0.026538 0.056025 0.417876 255 127 14
-0.050922 0.003113 0.304221 255 127 14
-0.048575 0.033987 0.469944 255 127 14
0.016173 0.087381 0.305286 255 127 14
-0.015107 0.124579 0.336109 255 127 14
-0.012059 -0.001895 0.386771 255 127 14
0.027105 0.080792 0.321094 255 127 14
-0.032734 -0.011280 0.372849 255 127 14
0.045636 -0.018932 0.521588 255 127 14
0.045741 -0.023312 0.466815 255 127 14
0.041479 -0.028641 0.523315 255 127 14
-0.058224 -0.015737 0.469455 255 127 14
-0.031138 0.052513 0.445418 255 127 14
-0.070472 0.031385 0.350225 255 127 14
0.043129 0.026030 0.308858 255 127 14
0.036819 0.050565 0.363056 255 127 14
0.017827 0.016304 0.401907 255 127 14
0.025453 0.085133 0.339463 255 127 14
-0.011670 -0.056976 0.503295 255 127 14
-0.059626 0.009179 0.481629 255 127 14
0.023198 0.051180 0.439926 255 127 14
0.015358 0.006073 0.289598 255 127 14
0.029335 0.067657 0.311406 255 127 14
-0.013483 -0.002186 0.279671 255 127 14
-0.043779 -0.015266 0.357681 255 127 14
-0.052714 0.000531 0.395519 255 127 14
-0.069083 0.071058 0.303909 255 127 14
0.020622 0.046041 0.501430 255 127 14
-0.022986 -0.015141 0.419509 255 127 14
-0.016404 -0.033586 0.526107 255 127 14
-0.055873 0.108313 0.306484 255 127 14
-0.057196 0.034811 0.420306 255 127 14
-0.075437 0.084499 0.312614 255 127 14
-0.024549 0.085947 0.393600 255 127 14
-0.052392 -0.000139 0.397297 255 127 14
-0.018427 0.046737 0.527088 255 127 14
0.049028 -0.007391 0.490837 255 127 14
-0.052926 -0.028135 0.461032 255 127 14
-0.050118 -0.033261 0.469563 255 127 14
-0.052828 -0.029009 0.469845 255 127 14
-0.058834 -0.017064 0.524778 255 127 14
-0.037714 0.062170 0.415337 255 127 14
0.029191 0.065414 0.309397 255 127 14
0.035190 0.047877 0.417580 255 127 14
0.049505 0.001284 0.482221 255 127 14
-0.054650 0.109370 0.359187 255 127 14
0.048299 0.009920 0.482422 255 127 14
-0.064000 0.042791 0.302398 255 127 14
-0.052878 0.114161 0.314362 255 127 14
-0.033546 0.120439 0.354322 255 127 14
0.000302 0.078254 0.286826 255 127 14
0.031295 0.039553 0.480720 255 127 14
0.027335 0.040688 0.519040 255 127 14
-0.050943 0.034778 0.442748 255 127 14
0.029182 0.024864 0.394566 255 127 14
-0.030227 0.072634 0.406831 255 127 14
0.034541 0.041956 0.438436 255 127 14
-0.047823 0.056357 0.410996 255 127 14
-0.044190 -0.015414 0.325322 255 127 14
0.010374 0.004402 0.413960 255 127 14
0.027896 0.040707 0.509813 255 127 14
-0.060590 0.009138 0.521243 255 127 14
-0.049018 -0.001663 0.398498 255 127 14
0.022581 0.046959 0.468782 255 127 14
0.028527 0.022814 0.290255 255 127 14
-0.032874 -0.011331 0.304319 255 127 14
-0.041660 -0.016642 0.525409 255 127 14
-0.018642 -0.044404 0.525883 255 127 14
-0.048099 -0.011370 0.358190 255 127 14
-0.061392 -0.004929 0.508909 255 127 14
-0.016843 -0.056373 0.511400 255 127 14
0.023946 0.057911 0.418017 255 127 14
0.027275 0.040700 0.519925 255 127 14
-0.029128 -0.001277 0.383261 255 127 14
0.045264 0.033737 0.344411 255 127 14
0.010447 0.056866 0.441343 255 127 14
0.028691 0.024549 0.387051 255 127 14
0.027975 0.068456 0.309165 255 127 14
-0.024661 0.049548 0.522990 255 127 14
-0.023006 -0.007770 0.355201 255 127 14
-0.070007 0.031281 0.339150 255 127 14
-0.006046 -0.001650 0.300860 255 127 14
0.000332 -0.023701 0.526846 255 127 14
-0.059933 0.112129 0.341988 255 127 14
0.013275 0.102345 0.317041 255 127 14
-0.055594 -0.023079 0.466792 255 127 14
-0.050701 0.030223 0.498420 255 127 14
0.011582 0.097950 0.360362 255 127 14
0.031672 0.074195 0.332187 255 127 14
0.036292 0.034064 0.399641 255 127 14
-0.053395 -0.010474 0.321549 255 127 14
-0.044190 -0.015414 0.305546 255 127 14
-0.054113 -0.004775 0.352108 255 127 14
0.041066 -0.001725 0.435355 255 127 14
-0.061560 0.011576 0.384165 255 127 14
0.010480 0.049739 0.519644 255 127 14
-0.036886 -0.012778 0.303623 255 127 14
-0.055608 0.022421 0.459858 255 127 14
0.039215 0.000261 0.433148 255 127 14
0.034831 0.058417 0.380467 255 127 14
0.049803 0.004435 0.467039 255 127 14
-0.014456 -0.004685 0.347075 255 127 14
0.036459 0.036508 0.397129 255 127 14
-0.057683 0.018740 0.524948 255 127 14
-0.048231 0.030639 0.290564 255 127 14
-0.003844 0.068795 0.418212 255 127 14
-0.057266 0.111786 0.350289 255 127 14
-0.066101 0.028578 0.393416 255 127 14
0.024995 -0.044554 0.450734 255 127 14
-0.052919 0.032236 0.440709 255 127 14
-0.049192 0.098848 0.290415 255 127 14
0.011253 0.069317 0.289885 255 127 14
-0.056008 0.021181 0.468712 255 127 14
-0.036727 0.101797 0.287307 255 127 14
-0.044081 -0.041215 0.483962 255 127 14
0.003425 0.088477 0.293283 255 127 14
0.020768 0.090487 0.318027 255 127 14
-0.030971 -0.051496 0.507426 255 127 14
0.033743 0.012707 0.303620 255 127 14
-0.033494 -0.000827 0.396138 255 127 14
-0.050998 -0.006504 0.411628 255 127 14
-0.008162 0.052632 0.512271 255 127 14
0.043254 -0.025087 0.522528 255 127 14
-0.037149 0.071772 0.281801 255 127 14
0.037475 0.034413 0.459823 255 127 14
0.006990 -0.051547 0.526723 255 127 14
0.001157 0.119842 0.330024 255 127 14
-0.040984 -0.006191 0.295971 255 127 14
-0.069602 0.093776 0.358733 255 127 14
0.007277 0.114089 0.321507 255 127 14
0.045141 -0.021871 0.505110 255 127 14
0.037884 0.057022 0.332641 255 127 14
0.043179 -0.028734 0.459343 255 127 14
-0.013087 -0.051261 0.525995 255 127 14
-0.015547 -0.004707 0.412535 255 127 14
-0.027588 0.048449 0.517617 255 127 14
-0.000829 -0.033087 0.429309 255 127 14
-0.048399 -0.034664 0.454391 255 127 14
0.025300 0.060031 0.409911 255 127 14
0.035389 0.035695 0.377405 255 127 14
-0.056196 -0.021012 0.461075 255 127 14
0.029445 0.011156 0.314430 255 127 14
0.041095 0.034324 0.434142 255 127 14
0.035751 0.047530 0.309584 255 127 14
0.003374 0.001749 0.354253 255 127 14
0.029671 -0.036173 0.527751 255 127 14
-0.058009 0.001098 0.403910 255 127 14
0.020597 0.014181 0.409718 255 127 14
-0.035812 0.042251 0.526396 255 127 14
-0.063211 0.010864 0.392883 255 127 14
-0.060021 0.112308 0.340465 255 127 14
-0.067586 0.020167 0.382677 255 127 14
-0.023728 0.073162 0.408889 255 127 14
-0.024725 -0.006553 0.526159 255 127 14
0.035581 -0.038315 0.492942 255 127 14
-0.017920 -0.005935 0.384641 255 127 14
0.037413 0.005995 0.429522 255 127 14
0.033305 0.066504 0.357925 255 127 14
0.017106 0.076981 0.385878 255 127 14
-0.011305 0.078146 0.282680 255 127 14
-0.025468 0.105319 0.288433 255 127 14
0.049045 -0.002475 0.497312 255 127 14
-0.049734 -0.033563 0.465621 255 127 14
0.034781 0.064695 0.327012 255 127 14
0.005398 -0.038609 0.526835 255 127 14
-0.032999 0.048137 0.465642 255 127 14
-0.011480 -0.000147 0.409293 255 127 14
0.012909 -0.037553 0.527122 255 127 14
0.011711 0.004757 0.386171 255 127 14
-0.061605 0.015878 0.424356 255 127 14
-0.026785 0.001205 0.391129 255 127 14
-0.053843 0.002717 0.309520 255 127 14
0.007991 0.004720 0.278794 255 127 14
0.032481 0.050617 0.418113 255 127 14
0.024871 0.009506 0.345802 255 127 14
0.027514 0.010460 0.366195 255 127 14
-0.023888 0.121042 0.310943 255 127 14
0.011629 0.068188 0.410455 255 127 14
-0.043895 0.115486 0.307264 255 127 14
-0.034426 0.068653 0.409196 255 127 14
-0.015119 0.010258 0.279092 255 127 14
0.041019 0.041504 0.353262 255 127 14
-0.040596 0.051166 0.282099 255 127 14
0.025948 0.046643 0.295500 255 127 14
-0.021259 -0.018310 0.526130 255 127 14
-0.047416 -0.016578 0.346145 255 127 14
0.022064 0.013803 0.411481 255 127 14
-0.037055 -0.046716 0.475202 255 127 14
-0.065554 0.049707 0.302705 255 127 14
0.007818 0.003353 0.381868 255 127 14
-0.015723 0.052339 0.495424 255 127 14
-0.058648 0.013365 0.478169 255 127 14
-0.033461 0.045627 0.517661 255 127 14
0.005410 -0.055905 0.487221 255 127 14
0.014994 0.016088 0.391141 255 127 14
-0.073006 0.067564 0.311518 255 127 14
-0.006488 -0.057092 0.492329 255 127 14
0.035689 0.044130 0.382774 255 127 14
-0.014570 0.055057 0.463076 255 127 14
-0.037691 -0.046941 0.492631 255 127 14
0.049595 0.008758 0.454769 255 127 14
0.021160 0.009093 0.283051 255 127 14
-0.047600 -0.038896 0.510832 255 127 14
0.049694 -0.007634 0.471178 255 127 14
-0.059613 0.009370 0.482990 255 127 14
0.020189 0.007817 0.379602 255 127 14
0.043821 -0.027379 0.466519 255 127 14
-0.032551 0.115644 0.301669 255 127 14
-0.015067 -0.004905 0.293632 255 127 14
-0.017729 0.015518 0.526704 255 127 14
-0.015727 -0.005143 0.284031 255 127 14
0.048574 -0.007927 0.502288 255 127 14
-0.062653 0.048635 0.390920 255 127 14
-0.057130 -0.022142 0.495232 255 127 14
-0.060226 0.102165 0.362852 255 127 14
0.005009 0.061476 0.431663 255 127 14
-0.049328 0.005224 0.300887 255 127 14
-0.066762 0.052312 0.377646 255 127 14
0.031904 -0.029303 0.527922 255 127 14
-0.060515 -0.002708 0.479792 255 127 14
0.042724 -0.022666 0.447327 255 127 14
-0.023104 0.077707 0.403121 255 127 14
-0.041169 -0.014324 0.349289 255 127 14
0.034298 0.012908 0.333177 255 127 14
0.006334 0.051099 0.513893 255 127 14
-0.002311 0.082859 0.394660 255 127 14
0.005706 -0.005748 0.417995 255 127 14
-0.033503 -0.011558 0.361133 255 127 14
-0.033716 -0.045709 0.525317 255 127 14
-0.044066 -0.004378 0.370727 255 127 14
-0.047165 -0.035180 0.447408 255 127 14
0.042479 0.027282 0.457514 255 127 14
-0.064441 0.018231 0.365025 255 127 14
-0.013796 -0.053665 0.525938 255 127 14
0.000720 -0.056658 0.486961 255 127 14
0.045378 -0.024598 0.459751 255 127 14
0.014680 -0.026474 0.527332 255 127 14
0.049112 0.007941 0.471456 255 127 14
0.045995 -0.021213 0.485582 255 127 14
-0.009076 -0.021080 0.422495 255 127 14
0.046416 0.029947 0.344900 255 127 14
-0.023811 0.032533 0.526706 255 127 14
-0.015222 0.037328 0.278051 255 127 14
0.012751 0.080409 0.385884 255 127 14
-0.034712 -0.011994 0.316695 255 127 14
0.005337 0.078666 0.289756 255 127 14
0.035594 0.032781 0.300814 255 127 14
0.006583 0.012150 0.399107 255 127 14
0.037651 0.041056 0.399939 255 127 14
-0.058176 0.059391 0.292830 255 127 14
0.036159 0.013579 0.364288 255 127 14
-0.014233 -0.004604 0.361792 255 127 14
0.029382 0.039298 0.513428 255 127 14
-0.012050 0.028420 0.527080 255 127 14
0.033535 0.003881 0.427429 255 127 14
-0.043883 0.038229 0.489612 255 127 14
-0.061082 0.011865 0.360087 255 127 14
0.035926 0.052811 0.366553 255 127 14
0.013973 0.086208 0.374241 255 127 14
-0.053868 -0.024890 0.445185 255 127 14
0.012788 0.069264 0.407076 255 127 14
-0.019692 -0.001171 0.281374 255 127 14
-0.072999 0.073252 0.310095 255 127 14
0.021880 0.006922 0.418170 255 127 14
-0.004896 0.059386 0.442390 255 127 14
-0.026343 -0.040153 0.435520 255 127 14
-0.058898 0.014210 0.525187 255 127 14
0.033592 0.012653 0.353858 255 127 14
0.011017 0.033881 0.527992 255 127 14
0.007931 -0.055357 0.494610 255 127 14
0.038917 0.051411 0.346576 255 127 14
-0.030288 0.081754 0.396437 255 127 14
0.044092 0.038514 0.340895 255 127 14
0.030795 -0.001823 0.427965 255 127 14
-0.027674 0.113336 0.297368 255 127 14
0.045811 0.033943 0.326651 255 127 14
0.022686 -0.049364 0.464320 255 127 14
-0.028522 0.055008 0.441369 255 127 14
0.035564 0.054955 0.366012 255 127 14
-0.056428 0.075644 0.383165 255 127 14
0.019960 0.018577 0.389887 255 127 14
-0.076088 0.089917 0.348174 255 127 14
0.030742 0.028619 0.293856 255 127 14
0.023124 0.083062 0.313042 255 127 14
0.015736 0.080782 0.380841 255 127 14
-0.065414 0.017457 0.402040 255 127 14
0.041529 0.043408 0.347194 255 127 14
0.040267 0.020667 0.424667 255 127 14
-0.055395 0.033214 0.428793 255 127 14
-0.049001 0.092883 0.288112 255 127 14
-0.013763 0.122686 0.318758 255 127 14
-0.063589 0.102429 0.308172 255 127 14
-0.057490 0.044101 0.407841 255 127 14
0.003302 0.001723 0.302952 255 127 14
-0.016164 0.028846 0.278284 255 127 14
-0.059494 0.073122 0.380968 255 127 14
-0.068300 0.026158 0.351132 255 127 14
-0.032542 0.078554 0.281785 255 127 14
-0.010932 0.063442 0.430259 255 127 14
-0.057023 -0.018943 0.463619 255 127 14
0.045674 0.018631 0.480482 255 127 14
-0.034745 0.045314 0.489499 255 127 14
-0.006623 0.117533 0.357048 255 127 14
0.005363 0.051165 0.519269 255 127 14
-0.072163 0.049871 0.316598 255 127 14
-0.071073 0.034235 0.338336 255 127 14
-0.068137 0.069991 0.368931 255 127 14
-0.056866 0.103285 0.365309 255 127 14
0.002807 0.076969 0.287550 255 127 14
-0.008072 -0.002381 0.292979 255 127 14
-0.008925 0.060799 0.437690 255 127 14
-0.061782 0.023217 0.416965 255 127 14
-0.047356 0.077674 0.285940 255 127 14
0.024263 0.014927 0.381114 255 127 14
-0.031139 -0.049775 0.457420 255 127 14
-0.050864 0.011440 0.525443 255 127 14
0.035255 0.021076 0.295613 255 127 14
0.021609 0.053868 0.433975 255 127 14
0.000161 0.074577 0.285335 255 127 14
0.005947 0.070736 0.410029 255 127 14
-0.039908 -0.002693 0.400027 255 127 14
-0.008721 0.014489 0.527018 255 127 14
-0.057892 0.073998 0.292054 255 127 14
-0.051240 -0.013034 0.317063 255 127 14
-0.059808 0.012455 0.522509 255 127 14
0.013629 0.013066 0.280795 255 127 14
-0.067283 0.022603 0.369555 255 127 14
0.048673 0.026570 0.337661 255 127 14
-0.002694 0.117932 0.313271 255 127 14
0.014843 0.104253 0.336200 255 127 14
-0.020813 0.102697 0.379209 255 127 14
0.000231 0.024626 0.278695 255 127 14
-0.008696 -0.002606 0.354225 255 127 14
0.030061 0.038544 0.516118 255 127 14
0.043217 0.023218 0.489358 255 127 14
-0.018632 -0.027548 0.526105 255 127 14
0.033082 0.037694 0.482628 255 127 14
-0.053346 0.087732 0.289613 255 127 14
0.016236 0.020148 0.528001 255 127 14
-0.013188 0.055650 0.459586 255 127 14
-0.056389 -0.017878 0.439921 255 127 14
-0.000481 -0.052976 0.448812 255 127 14
-0.048395 0.002928 0.300751 255 127 14
-0.037427 0.122684 0.343531 255 127 14
-0.051767 0.028767 0.490902 255 127 14
0.003713 0.001871 0.385712 255 127 14
0.015566 0.006148 0.339367 255 127 14
-0.049474 -0.035499 0.491222 255 127 14
0.017680 0.050815 0.456758 255 127 14
0.004152 0.002030 0.290239 255 127 14
-0.061788 -0.006268 0.522448 255 127 14
-0.043492 -0.003290 0.297551 255 127 14
-0.037041 0.033631 0.283261 255 127 14
0.036962 0.031849 0.505013 255 127 14
0.028772 -0.034331 0.442090 255 127 14
0.022311 0.008582 0.299656 255 127 14
0.038539 0.055234 0.333131 255 127 14
0.037197 -0.018703 0.528254 255 127 14
0.029399 0.075802 0.349633 255 127 14
-0.061290 0.003757 0.514745 255 127 14
-0.053494 -0.028462 0.478426 255 127 14
-0.057909 0.020455 0.441141 255 127 14
0.037966 0.014231 0.349164 255 127 14
0.023097 0.060404 0.413149 255 127 14
0.001948 0.053508 0.481491 255 127 14
0.043200 0.021184 0.512812 255 127 14
0.040303 0.017859 0.426511 255 127 14
-0.048752 -0.034510 0.459356 255 127 14
-0.018324 0.113361 0.368471 255 127 14
-0.002706 0.071246 0.413234 255 127 14
-0.041021 0.046938 0.440860 255 127 14
-0.055716 -0.019802 0.441099 255 127 14
0.045574 -0.005482 0.441448 255 127 14
0.006106 0.054348 0.462273 255 127 14
-0.001987 0.005286 0.406878 255 127 14
0.001584 0.005764 0.278120 255 127 14
-0.061877 0.043033 0.397582 255 127 14
-0.053108 0.023825 0.297369 255 127 14
-0.030347 0.002196 0.526069 255 127 14
0.000987 -0.056789 0.506031 255 127 14
0.002849 -0.050976 0.526579 255 127 14
-0.045372 0.018820 0.291692 255 127 14
-0.025882 -0.053410 0.496167 255 127 14
-0.048600 -0.020445 0.429618 255 127 14
0.015529 0.087056 0.304086 255 127 14
-0.018923 0.104832 0.377317 255 127 14
-0.052384 -0.033423 0.521593 255 127 14
-0.051817 0.028856 0.511940 255 127 14
-0.057808 -0.015737 0.459477 255 127 14
-0.066240 0.070680 0.372146 255 127 14
0.022406 0.023725 0.286366 255 127 14
0.042588 0.025653 0.474523 255 127 14
-0.031613 -0.044747 0.443097 255 127 14
-0.047486 -0.022448 0.430805 255 127 14
0.043769 0.023753 0.470692 255 127 14
0.044176 -0.026887 0.462985 255 127 14
0.000104 -0.003567 0.415412 255 127 14
-0.018467 -0.056236 0.520751 255 127 14
-0.027281 -0.034513 0.525698 255 127 14
-0.060473 0.024152 0.421887 255 127 14
-0.055359 -0.006805 0.324895 255 127 14
-0.052259 0.099903 0.293340 255 127 14
-0.011438 0.063860 0.279117 255 127 14
0.028728 0.075002 0.357346 255 127 14
-0.036030 -0.044624 0.447602 255 127 14
0.011141 -0.033401 0.527112 255 127 14
-0.028409 -0.037007 0.433704 255 127 14
-0.031560 0.111597 0.370241 255 127 14
-0.026586 -0.052187 0.462700 255 127 14
-0.040539 -0.030032 0.433228 255 127 14
0.036694 0.053081 0.359833 255 127 14
-0.021851 0.053819 0.459097 255 127 14
0.047952 0.015706 0.450966 255 127 14
-0.035704 0.122584 0.345855 255 127 14
-0.005715 -0.001531 0.322831 255 127 14
0.019800 0.061236 0.416521 255 127 14
-0.017285 -0.002899 0.410385 255 127 14
-0.040674 -0.025644 0.525327 255 127 14
-0.010332 0.054892 0.469327 255 127 14
-0.068922 0.044989 0.310311 255 127 14
0.010050 0.024783 0.527837 255 127 14
0.032002 0.072321 0.342875 255 127 14
-0.044824 -0.039255 0.460028 255 127 14
-0.015335 0.056608 0.451232 255 127 14
-0.052474 0.027940 0.477630 255 127 14
-0.022723 0.006002 0.281522 255 127 14
-0.049755 -0.028433 0.439515 255 127 14
0.046107 0.016459 0.490170 255 127 14
0.027078 0.040700 0.523562 255 127 14
-0.071523 0.044911 0.358925 255 127 14
-0.009797 -0.006246 0.526706 255 127 14
0.042038 0.026405 0.476841 255 127 14
-0.008196 -0.050850 0.445080 255 127 14
-0.019867 0.067195 0.419762 255 127 14
-0.001269 0.053572 0.486047 255 127 14
-0.024054 0.069341 0.279500 255 127 14
-0.052028 0.040261 0.290804 255 127 14
0.036933 -0.006256 0.433433 255 127 14
-0.060505 -0.010780 0.501041 255 127 14
0.043416 0.024353 0.471593 255 127 14
-0.077736 0.090626 0.336947 255 127 14
-0.064682 0.040608 0.304606 255 127 14
-0.057244 -0.020947 0.487637 255 127 14
0.040853 0.025840 0.509833 255 127 14
-0.060190 0.096009 0.369178 255 127 14
-0.056658 0.020719 0.519925 255 127 14
-0.049160 0.001167 0.302602 255 127 14
0.017396 -0.001037 0.420398 255 127 14
0.033455 0.049048 0.419707 255 127 14
0.019172 0.052605 0.443527 255 127 14
-0.037659 0.079815 0.394922 255 127 14
-0.047045 -0.016444 0.355844 255 127 14
0.016828 0.093687 0.312918 255 127 14
0.039929 0.012148 0.429149 255 127 14
0.017530 0.006857 0.305045 255 127 14
-0.056097 0.069565 0.387370 255 127 14
-0.006435 0.070774 0.414888 255 127 14
-0.011501 0.042055 0.278114 255 127 14
-0.036641 0.002155 0.525839 255 127 14
-0.033654 -0.048701 0.468292 255 127 14
-0.009035 0.090526 0.387834 255 127 14
-0.031338 -0.051133 0.501836 255 127 14
-0.023287 0.063125 0.278469 255 127 14
0.014611 0.091979 0.363582 255 127 14
-0.035529 0.118775 0.308683 255 127 14
0.037204 0.013956 0.358823 255 127 14
-0.037081 0.091747 0.385451 255 127 14
-0.042516 -0.019970 0.425719 255 127 14
0.011416 0.051666 0.475912 255 127 14
-0.001877 0.116194 0.356142 255 127 14
-0.030222 -0.010374 0.325575 255 127 14
-0.003294 -0.000657 0.281862 255 127 14
-0.006953 0.003423 0.526937 255 127 14
0.041266 -0.002768 0.528612 255 127 14
0.030250 0.025460 0.397018 255 127 14
-0.006313 0.045177 0.278825 255 127 14
-0.055640 0.089451 0.376735 255 127 14
-0.016293 0.000056 0.526553 255 127 14
-0.074272 0.069047 0.354358 255 127 14
-0.052404 -0.030159 0.475547 255 127 14
0.007440 -0.013664 0.421547 255 127 14
0.044131 0.025718 0.446132 255 127 14
0.018608 0.094048 0.348663 255 127 14
-0.004829 0.093851 0.382429 255 127 14
-0.065132 0.018238 0.335051 255 127 14
-0.013878 0.073740 0.280967 255 127 14
0.009058 0.003800 0.346458 255 127 14
0.020731 0.065370 0.297156 255 127 14
-0.077565 0.069072 0.338131 255 127 14
-0.052562 0.056707 0.288451 255 127 14
-0.044787 -0.032088 0.525092 255 127 14
-0.038802 0.116334 0.305438 255 127 14
-0.045043 -0.005941 0.300559 255 127 14
-0.059024 0.040676 0.407763 255 127 14
-0.031471 0.050585 0.279436 255 127 14
-0.077462 0.091049 0.327875 255 127 14
0.014393 0.093922 0.308742 255 127 14
-0.049529 0.118911 0.339851 255 127 14
0.000819 0.093848 0.378787 255 127 14
0.009288 0.003883 0.372325 255 127 14
-0.042770 0.047465 0.435009 255 127 14
-0.037121 -0.001796 0.397889 255 127 14
-0.001650 -0.000064 0.379552 255 127 14
0.020351 0.077995 0.377640 255 127 14
0.001438 0.118496 0.321288 255 127 14
-0.047285 0.038912 0.445704 255 127 14
-0.061651 -0.001358 0.515321 255 127 14
-0.021227 -0.012664 0.526206 255 127 14
0.015578 0.006153 0.378645 255 127 14
-0.029387 -0.010073 0.357063 255 127 14
-0.048225 0.105119 0.370414 255 127 14
0.003480 0.053268 0.481580 255 127 14
0.044403 0.037660 0.326053 255 127 14
-0.029175 -0.052492 0.512399 255 127 14
-0.039346 0.029677 0.285059 255 127 14
-0.046349 -0.036652 0.524976 255 127 14
-0.007582 -0.021109 0.422551 255 127 14
-0.003957 -0.001258 0.412778 255 127 14
-0.068689 0.077191 0.366515 255 127 14
-0.026294 0.048978 0.520938 255 127 14
0.023439 -0.048465 0.513477 255 127 14
0.035800 0.060050 0.348970 255 127 14
-0.061105 0.000639 0.500269 255 127 14
-0.052209 -0.016918 0.329063 255 127 14
0.011623 0.055733 0.286816 255 127 14
-0.042958 -0.001584 0.395025 255 127 14
-0.056328 0.018928 0.303755 255 127 14
0.046891 0.008970 0.523580 255 127 14
-0.042695 0.120366 0.347070 255 127 14
0.018717 0.043735 0.528402 255 127 14
0.018758 0.046560 0.511763 255 127 14
-0.045431 0.014500 0.293079 255 127 14
-0.022200 -0.007479 0.332924 255 127 14
-0.019783 -0.054158 0.456107 255 127 14
0.007013 -0.011904 0.527244 255 127 14
0.006550 0.052253 0.487344 255 127 14
-0.060282 0.008418 0.504552 255 127 14
-0.001835 -0.000130 0.298261 255 127 14
0.028111 0.010675 0.294755 255 127 14
0.021088 -0.050085 0.490657 255 127 14
-0.052028 -0.032023 0.493258 255 127 14
0.011009 -0.010703 0.527406 255 127 14
-0.066777 0.082966 0.299916 255 127 14
0.027254 0.010366 0.308586 255 127 14
-0.018901 -0.046880 0.525841 255 127 14
-0.031468 0.116456 0.302743 255 127 14
0.013613 -0.053550 0.469535 255 127 14
-0.029836 -0.042071 0.525506 255 127 14
-0.048444 0.045890 0.425687 255 127 14
0.026643 0.010145 0.357565 255 127 14
-0.014965 0.058152 0.444771 255 127 14
0.014863 0.088926 0.368076 255 127 14
-0.007490 0.078698 0.283892 255 127 14
-0.043399 -0.030445 0.435182 255 127 14
-0.004502 -0.057316 0.512631 255 127 14
0.037448 0.045506 0.398305 255 127 14
0.012830 0.102926 0.349542 255 127 14
-0.004092 -0.057020 0.488301 255 127 14
-0.006108 -0.001672 0.310697 255 127 14
-0.018061 0.047054 0.278041 255 127 14
-0.007084 -0.026042 0.425001 255 127 14
-0.034536 0.075971 0.400510 255 127 14
-0.036985 0.102711 0.377875 255 127 14
-0.051927 0.013642 0.525433 255 127 14
-0.067394 0.030189 0.318873 255 127 14
-0.060292 0.011083 0.363147 255 127 14
-0.065887 0.020287 0.341490 255 127 14
0.043272 0.022759 0.493362 255 127 14
0.027537 0.010468 0.339782 255 127 14
0.022378 0.010582 0.415406 255 127 14
0.011602 0.108678 0.325129 255 127 14
0.028276 0.036450 0.294200 255 127 14
-0.026698 -0.009102 0.359781 255 127 14
0.002560 -0.030447 0.428333 255 127 14
0.004564 0.002221 0.413122 255 127 14
-0.036097 0.002730 0.525867 255 127 14
-0.022108 0.059847 0.434559 255 127 14
-0.020672 0.025793 0.526731 255 127 14
0.044191 0.020118 0.500947 255 127 14
0.009161 0.078731 0.292376 255 127 14
0.022630 0.009986 0.528101 255 127 14
-0.028888 0.032533 0.280446 255 127 14
-0.041237 0.037401 0.526135 255 127 14
0.049737 -0.005135 0.475579 255 127 14
0.047689 0.014527 0.467208 255 127 14
0.034342 -0.039278 0.508207 255 127 14
-0.066824 0.016724 0.391298 255 127 14
-0.059135 0.038897 0.409435 255 127 14
-0.054906 -0.008256 0.341571 255 127 14
-0.015348 -0.056569 0.507970 255 127 14
-0.050376 0.044603 0.423583 255 127 14
0.015339 0.008024 0.280761 255 127 14
-0.014275 0.009259 0.526747 255 127 14
0.036422 -0.033435 0.450266 255 127 14
0.026347 -0.047043 0.460226 255 127 14
0.048804 0.003323 0.496539 255 127 14
0.040261 0.037996 0.311908 255 127 14
0.005471 0.035164 0.527807 255 127 14
0.015793 0.006230 0.372349 255 127 14
0.037265 0.036872 0.370197 255 127 14
-0.044807 0.118864 0.316371 255 127 14
-0.038679 -0.026664 0.525386 255 127 14
-0.021609 0.050497 0.520481 255 127 14
-0.036164 0.047618 0.453559 255 127 14
-0.005084 -0.001303 0.351889 255 127 14
-0.053015 -0.014769 0.336491 255 127 14
0.007505 0.003240 0.294527 255 127 14
0.011385 -0.054300 0.471115 255 127 14
-0.066758 0.023062 0.392381 255 127 14
-0.050251 -0.015909 0.317214 255 127 14
0.030785 0.011640 0.290679 255 127 14
0.011337 0.052093 0.470785 255 127 14
-0.027952 0.023692 0.281132 255 127 14
-0.013010 0.004424 0.390862 255 127 14
0.017259 0.047794 0.500829 255 127 14
-0.001855 0.114009 0.360382 255 127 14
-0.028365 0.092528 0.284327 255 127 14
-0.051184 -0.031672 0.469332 255 127 14
-0.066120 0.018885 0.379337 255 127 14
-0.036872 0.043536 0.515948 255 127 14
-0.012100 0.047602 0.527330 255 127 14
-0.012506 0.057803 0.447575 255 127 14
-0.066410 0.097834 0.306539 255 127 14
-0.003973 -0.027710 0.426043 255 127 14
0.039965 0.017391 0.426242 255 127 14
-0.046712 0.043461 0.434755 255 127 14
0.009123 0.004025 0.413676 255 127 14
-0.039893 -0.010127 0.369978 255 127 14
0.048410 -0.010934 0.495235 255 127 14
0.044179 -0.021689 0.528469 255 127 14
-0.010502 0.120070 0.312354 255 127 14
-0.071745 0.037562 0.348365 255 127 14
-0.055028 -0.006929 0.416852 255 127 14
-0.077785 0.090709 0.335577 255 127 14
-0.035398 0.090768 0.386772 255 127 14
-0.060300 0.032212 0.302548 255 127 14
0.002428 0.010789 0.397551 255 127 14
-0.039288 -0.046864 0.519629 255 127 14
0.041287 0.047609 0.333983 255 127 14
0.039332 0.023996 0.420398 255 127 14
-0.031405 0.092241 0.386685 255 127 14
-0.060808 0.003728 0.524980 255 127 14
-0.018087 0.088902 0.284393 255 127 14
0.049049 0.010821 0.458114 255 127 14
0.016629 0.006532 0.381250 255 127 14
0.021529 0.026910 0.286523 255 127 14
-0.064947 0.040614 0.390074 255 127 14
0.016788 0.006589 0.310524 255 127 14
